11.462025 1.863396 4.891423
6.232289 3.121514 9.569888
2.067513 9.618960 8.142781
4.233984 10.448258 3.041426
2.900074 4.945721 0.177165
7.822146 10.044721 9.338544
0.281448 5.948044 2.660250
2.767966 0.529852 0.156320
11.270681 6.853354 7.074119
9.891309 7.602597 9.274052
6.139437 -0.070993 7.912667
11.038235 1.113161 8.389275
0.265401 6.906873 3.187867
10.395446 4.154407 0.782077
6.635260 10.136442 7.602126
1.796260 1.881928 0.094638
9.715865 10.309141 8.700486
10.055981 0.601864 5.547571
8.542992 2.954525 -1.172240
3.858421 -0.356258 8.405441
7.724886 2.506727 -1.050499
5.073092 5.982536 10.093108
9.315942 9.991529 9.630963
5.742950 9.920164 8.663585
10.883910 7.580758 9.069640
11.119783 5.427891 5.377051
1.132354 7.148142 7.869437
11.469740 6.986621 8.198699
8.175272 9.155499 9.779466
5.956114 10.198317 6.530599
7.642739 0.721546 2.571393
2.307173 0.191727 9.569033
10.453010 6.113353 2.331892
2.019343 9.962488 5.252562
4.718778 5.125778 10.079329
8.446542 10.730451 4.161354
7.405774 0.511821 4.116996
8.431080 4.654581 -0.978866
6.764477 7.907555 9.941672
6.065648 1.081742 9.399177
4.592941 0.526131 1.686849
1.809532 0.685475 -0.028112
11.831614 3.568611 8.474009
9.899126 4.111879 8.922219
10.548615 9.068461 4.715611
10.256926 6.422059 1.504690
3.495877 9.972486 6.382913
10.672148 9.945045 5.919751
10.878727 4.232156 3.355624
1.692723 5.076445 9.474920
0.553308 1.085581 0.979355
1.005815 5.339184 0.602556
5.414967 -0.286000 9.101498
11.616718 3.120951 6.501233
11.483896 7.490336 8.593838
11.623555 3.943945 7.061751
10.339336 10.797379 5.161353
6.781971 10.642387 3.524287
7.963038 8.658103 9.772798
2.093981 0.021077 3.824367
6.244979 0.951783 -0.487736
11.202021 2.772308 4.113131
9.893549 9.883300 1.814097
9.964916 5.940152 -0.327655
10.541021 6.584554 9.039542
0.663787 9.140267 6.692658
4.302860 5.018694 10.153319
10.053374 3.579925 8.837421
4.175977 0.409607 2.311146
8.876418 7.461744 -0.787938
5.553330 10.018018 7.695766
2.411271 1.398003 10.175408
2.619105 1.173849 10.110576
5.971450 0.441935 3.518282
0.601151 6.878174 4.923046
10.177478 2.802722 -1.218217
7.275622 0.224607 6.393380
9.415058 0.174336 8.568582
9.851232 9.715453 1.486062
1.128802 0.449675 3.579403
7.653049 10.987140 1.379272
6.769914 8.300239 9.979964
10.320483 9.466519 3.778012
1.139976 0.856384 3.897108
3.114086 -0.578064 9.634375
8.103670 10.383078 6.762149
11.046851 10.306749 8.107314
1.190376 5.055188 6.837827
9.797830 7.154895 -0.425653
7.031936 4.742162 -0.685034
6.377242 10.550496 0.031122
11.672262 5.040466 8.015355
1.515375 8.752141 0.841183
2.949080 3.435647 10.270287
1.573916 9.903917 5.372571
10.421261 7.280432 2.910304
5.320680 7.764330 -0.033175
9.844252 2.902266 8.812032
10.191631 0.540923 6.164732
11.907205 2.952812 7.911102
